ply
format ascii 1.0
element vertex 797
property double x
property double y
property double z
element face 0
property list int int vertex_indices
end_header
0.27449183862474674 0.48768182715149644 0.15171525383474913
0.30665448519100841 0.48841469484122851 0.15313558517942452
0.36233758598389088 0.50241660064648364 0.18198752087566919
0.36789026659735768 0.49461234558990030 0.13262052879401645
0.36407807398412845 0.49657170432194020 0.15670911555850744
0.35935197964502197 0.51042400965359636 0.20958386037910040
0.27449183862474674 0.49243644453809837 0.10114854744925371
0.31582010455734266 0.50264187451139730 0.07582881281837398
0.34757545364742842 0.49424212807546852 0.10402937524630232
0.31243855175099500 0.49263610587056705 0.10173181466538680
0.32051977141978999 0.53540204981753980 0.03103191146911738
0.36035203261639592 0.51844306072091140 0.05447145337733258
0.27449183862474674 0.51691329401033470 0.05141133785316915
0.31871670734596541 0.51710014907658086 0.05176816699836833
0.38796932782819116 0.50735516258428126 0.08473266046106051
0.40214761084551048 0.54029113299947784 0.04000211885495682
0.39680856203675519 0.52172379328590746 0.06115516013944861
0.37709215098122195 0.49826271356631813 0.10859131653655694
0.27449183862474674 0.55670003475154972 0.01483722362476708
0.31962956128642439 0.58035088005243585 0.00460268850096251
0.36416131471457458 0.55843935854576698 0.01744446300706265
0.32062088271264666 0.55693927908870611 0.01510208049436843
0.35853470701882356 0.60499013626449361 0.00215436324042773
0.27449183862474674 0.60407914505366700 0.00000000000000000
0.31815550183391555 0.60427706007710535 0.00015833201875067
0.39892916330259642 0.58469569691991830 0.01228586613144233
0.39234616036122988 0.60633886893892508 0.00750912883045611
0.40252539569907375 0.56198087325929369 0.02341451147878027
0.34825302155119975 0.74166966934802725 0.39586252822471973
0.30981873894368100 0.78271549890011649 0.38998186749123498
0.27449183862474674 0.75160674983366416 0.41315675044487221
0.31192729067721287 0.74931035345876884 0.40810514410251070
0.38604431317374788 0.74917646976644292 0.36157712661147939
0.38236018322274351 0.72793553092742402 0.37934116417109404
0.37412750035071707 0.78152160562637485 0.34488444964197751
0.39655942194842686 0.76066427267102044 0.34234613125607938
0.34789269978793991 0.83377757494721794 0.31540553079354033
0.33197253172315883 0.81120129180300005 0.35302335571907473
0.35763011894110808 0.80779016816373861 0.33291542217893960
0.27449183862474674 0.82018488755807206 0.37608656803125196
0.29798068465791849 0.84700877636708349 0.34751980459966159
0.30384880689256533 0.81682207846865007 0.36907484622293729
0.41280766326970753 0.79588150478284947 0.11585945472082630
0.42497361618106672 0.77942487058394827 0.13022226439235138
0.42189021653649877 0.76549630975796745 0.11300132894117207
0.39841924106573751 0.84503253664775035 0.13998063925388363
0.41474548419037333 0.81436676797199392 0.13386564713264787
0.40517454649809742 0.82284509831428787 0.12592692628072849
0.41799711160486380 0.82033681644371148 0.15772488531115444
0.42279480461421420 0.79908772816255114 0.14448320603710671
0.40630091582266586 0.96018298990225903 0.23236329747384754
0.39990011112346469 0.97529321983876915 0.22672097299682348
0.39150269309957630 0.97800407355686481 0.24300414049871094
0.39919227386316741 0.96248171468919486 0.24614982516536091
0.40078781821388682 0.97130232160143526 0.23734784554944413
0.38911781706714382 0.96888717621247700 0.20802207800296757
0.38618343579316489 0.98129353766701266 0.22150824054126264
0.40072786160384521 0.96379959590409048 0.21243500092263329
0.39535621502652357 0.97474080408217212 0.21665815826100221
0.36396107127909572 0.97795401269799509 0.23275679910868385
0.37778601776927656 0.98400439138510842 0.23779140804315013
0.37106971323859417 0.97565528791105927 0.21896968931416039
0.37525910860237655 0.98248452042570356 0.22764535257688270
0.37915454194605192 0.97079007095253600 0.25428529683469847
0.36754449740935058 0.97587823336393265 0.24987237391503275
0.37972616710198270 0.97979287610694166 0.24697117251263018
0.39546099356834385 0.87120621639446560 0.21300255135749332
0.38592847467473540 0.87985917763979360 0.20774499697015381
0.39037923429005844 0.87906518913399956 0.22556724483077972
0.39673114233641016 0.87237449713576221 0.23316194280372243
0.39192180726685760 0.87543112004186485 0.22082601581341038
0.36864292578943358 0.89057394774694121 0.18985347885132448
0.37823481919007357 0.88779906269773312 0.19985575487409402
0.37982687092273232 0.88269169088700272 0.19062069061865325
0.37831398519944892 0.88509461211274876 0.19654533505558211
0.38358958478010186 0.90140222794106095 0.20220919734398038
0.38648089043133255 0.88821701265899422 0.21367080561310289
0.37101557765865367 0.89713832339198407 0.19420178833686769
0.37989206645986490 0.89262702506360936 0.20144547819471229
0.39217851469431736 0.88029459069135796 0.24268573015217917
0.39279437967901676 0.89309503588374017 0.22991730062535326
0.39045898240244398 0.88404799090056585 0.22848067039639469
0.38004807006657515 0.89707953098796267 0.25630170166172950
0.36263096590098781 0.89552589805397154 0.26394122156645083
0.37257794213779666 0.88376683514668131 0.26681739253941855
0.38655598171963707 0.88172423568419511 0.25679474291129506
0.37593376599109735 0.88825426725164136 0.26098239196604711
0.33755978925542623 0.90790781118208241 0.26068551943088952
0.34567721573145027 0.89765697717399473 0.26632551549587319
0.35326609267429188 0.91119843949825052 0.26253718910605855
0.34915353490784440 0.90234057799336298 0.26395169942063290
0.33448977798009094 0.89471619276690439 0.27410997905011270
0.35449258371659970 0.88826590931184368 0.27270885710477100
0.33054969733553990 0.90187955240935358 0.26372700765872931
0.34130154740443180 0.89562369135967046 0.26969822033646718
0.38286486653251139 0.87528850480438725 0.27019475420409345
0.36392498089246872 0.87858146153259575 0.27797339672823185
0.36896250034198558 0.88102512996904958 0.27245214967731118
0.35508400037487436 0.89554277904126467 0.18523914829015969
0.34385465120678688 0.90027353020445200 0.19649352788768204
0.35792408096121509 0.89725998292109777 0.19305853802500597
0.35647755498108463 0.89573196251955145 0.19029587713901025
0.32455444380348436 0.90647525567419462 0.21980500713367238
0.33561847571669978 0.90497575832014399 0.20883061908401435
0.32889250827604960 0.90478191801777630 0.20376865130807278
0.33280982869290521 0.90390468878153618 0.20706801116939255
0.34237319904604957 0.91799507424432847 0.21005652802331204
0.34882406460412052 0.90574646270553338 0.20007287929686612
0.33046494313726749 0.91183526019131411 0.22124221946564107
0.33843469007962590 0.90925363334146347 0.20963392123797009
0.36396863861822715 0.91026358206400926 0.19493756654165034
0.36017216278627101 0.90161003871567136 0.19433683623521383
0.31583157198664197 0.90873206904440240 0.23180913540822012
0.31994936868018042 0.90770814984961368 0.24447220429021557
0.32341992503677441 0.90890844625646638 0.23286739868060533
0.32030107531889063 0.90783563040882853 0.23248961382704206
0.32685078196807871 0.90712546473649081 0.25425910219924341
0.31824706663740632 0.90613821803133920 0.25634652359350818
0.32339896932841034 0.90581515086072673 0.25510140525487673
0.33388322664355330 0.92011625761317972 0.25375034416840475
0.32618730095715204 0.91313102149182523 0.24430048390223233
0.32990979149652283 0.91143651962938665 0.25381204708747668
0.33036313332079881 0.92194173265289381 0.23342971018837433
0.32637747401055589 0.91319563492594780 0.23312061349000443
0.39561350455699346 0.87385245667843869 0.24862783767941141
0.40609077663601506 0.87127897927072973 0.24916977558182651
0.40948269087594280 0.86791966279936839 0.23251464425647692
0.40079189293495759 0.87125453094430494 0.24212749336548092
0.39201261533643517 0.87452711406715966 0.26088052393927735
0.39199165962807114 0.87713318924343497 0.25309664248804797
0.40008580198369065 0.86992791818425785 0.27268440877834621
0.40455926361640815 0.87154500034635130 0.26265652022313174
0.39435383364310922 0.87244202108493518 0.26720274473211325
0.42825085612800218 0.87175746794504261 0.24738562985583054
0.42880909291470043 0.87177842365340663 0.26120126269784955
0.41461218260105753 0.87165559991827279 0.25573706174191996
0.43689566793118850 0.86619198106535344 0.22682866205369434
0.43623381680869011 0.85236295985410171 0.20337864229129715
0.41121153681597811 0.86126971801183883 0.21108393983616128
0.42364060028790818 0.86242635669293322 0.21871065347466018
0.45562308597253992 0.87342752148105629 0.25189692818420534
0.47471490049822201 0.86931321740557854 0.23236853640093857
0.44921646024323764 0.87083483467401357 0.23854348513221599
0.49299002450071577 0.85856235691180383 0.21406779986599989
0.50889598925205004 0.87049255810406712 0.25188062929992217
0.50195324665043384 0.86761813344012984 0.23201985669788097
0.45959244639849967 0.84104047420439620 0.19519776658717078
0.48300404736222941 0.84364131045358048 0.20033890037248772
0.42481179154425536 0.83260289107281005 0.18163127383348010
0.44023170028214537 0.83531781951197659 0.18918114987464410
0.38132462196775269 0.86820547537733372 0.27939431017591737
0.41923233419232336 0.85834406828301146 0.28421121258460141
0.43595324315781575 0.86735385867353865 0.27462630442008279
0.41027900779377724 0.86603423114961275 0.27794661998976666
0.46649560599542822 0.84388404740879763 0.29666356017693607
0.37855963266971654 0.84691272937041484 0.29249453841850764
0.42124699271032406 0.84443995578345543 0.29269943867806736
0.51257371606994317 0.85740921084877031 0.28790523828677772
0.50699542292403155 0.84275593177519881 0.29911479595252133
0.47975125574171862 0.86941741384438886 0.26796762808740160
0.51282169195225125 0.86687245948417535 0.27133451189789448
0.45113448966155956 0.87104264544862398 0.26493428930170343
0.31553045009951053 0.90140804897116211 0.26957306818929294
0.30957291684251032 0.89306767704226486 0.28587777350255456
0.33662609602720522 0.88413647055810296 0.28519554877470227
0.32370579582504083 0.89341111781823146 0.27960037464149728
0.27449183862474674 0.89661559488890274 0.29616178738221871
0.29542647485984419 0.88394030184369488 0.30909029523682569
0.28955340474961133 0.90298147340749713 0.27717358719233676
0.29271393304301918 0.89504624517363851 0.29265170623123810
0.31941202939154523 0.86204682553033951 0.31452597314525976
0.27449183862474674 0.87154674665538157 0.33384626310241117
0.29617762058409380 0.86865485890114091 0.32745215258782623
0.34920592417875451 0.86760358086487710 0.29067255599685432
0.34574357547460316 0.85379085853790859 0.30132154846385928
0.35630292407805070 0.87498697544514870 0.28346844914369740
0.29019738530969924 0.91363803321363357 0.21069393081938564
0.31218673398882013 0.90854172136009537 0.19319300382034205
0.29998894004280791 0.90510149257032835 0.16968128113887287
0.27449183862474674 0.91279340174595991 0.19003625919649991
0.29499571863236063 0.91128400864073722 0.19065154207818924
0.33587227262910901 0.90174042978993652 0.18439742733753647
0.31370980651478053 0.90917737784713870 0.21506552442533336
0.32275196183266985 0.90635126773304064 0.19835451121101291
0.36992646292673248 0.88735608230703722 0.17610769837051907
0.35257979322536875 0.89143895281996888 0.16531085173894544
0.35299541477458934 0.89521156242851052 0.17707981039740753
0.33087247345464754 0.88838232991386623 0.14968022171139447
0.37724058724880072 0.87158225493899855 0.15033043077369057
0.35620454866934165 0.88092559035432028 0.14942700690199540
0.27449183862474674 0.89497872122446531 0.14786580662887264
0.30325383940592898 0.89321669541285365 0.14867958663701045
0.29959887281573122 0.90759463976264176 0.25985718684749892
0.28669184456219743 0.91242551264356841 0.24575923404557520
0.27449183862474674 0.90941312956623432 0.26260995198232268
0.28745829959561309 0.90875768157684733 0.26169488605042523
0.30773312206874753 0.90962210454686487 0.24499260438125653
0.31008778695495515 0.90672614207155322 0.25800260665727931
0.29935596122961117 0.91226601641879757 0.22951041062128436
0.30882200395946474 0.91035380803057686 0.23064609359401458
0.27449183862474674 0.91488431575828522 0.22874552726599603
0.28751715020993551 0.91403502746653054 0.22891084452086810
0.38644945686878646 0.87200195120928992 0.16899905641102062
0.40307431883761013 0.85003745832870092 0.16219951114989212
0.39197186812572732 0.86108810187268359 0.15480039978834734
0.39236944448163441 0.87070793621780906 0.19015617241658320
0.38247020069165483 0.87876540608379139 0.18118887554579433
0.40787899708308184 0.85408714897005611 0.18644177310905291
0.40136933912098954 0.86445323937414620 0.20084358368225558
0.41322328481892817 0.83902581568639556 0.17189036206225128
0.38080596818574214 0.92027400752892041 0.19567858367352403
0.39588942138378691 0.93303719812865527 0.20475589801322419
0.39565890859178227 0.91205413092311638 0.21535541172436956
0.38962948561303312 0.91594781795776148 0.20303927623640133
0.40571823070954288 0.94772656758885376 0.21846151338633188
0.39212787173243757 0.95196718801752611 0.20182617356332613
0.40024704451749199 0.94944318936567662 0.20817749950666772
0.40355164330590271 0.94448367171951486 0.24188417430725376
0.40353825493667012 0.92758580343894814 0.23014781341735796
0.40675844878861456 0.94514203022395249 0.23041150608093908
0.39526249644189537 0.90852484037280212 0.24427952819386825
0.39801933629778996 0.90892241672870921 0.23022814363275354
0.34065017413611548 0.93507921548813111 0.22216834535473065
0.35609569540645059 0.94899031322380878 0.21191751134664291
0.35883216165699117 0.92888156473945949 0.20125745892244584
0.34854989408635734 0.93245800563359305 0.21067646772908227
0.37368626626905155 0.96184256558409098 0.20628100789971995
0.35673018768747355 0.96514716437250170 0.22407764322790089
0.36414210531524088 0.96393988272952769 0.21420459407337641
0.37695361046481513 0.94143752666759406 0.19757158266241112
0.38314427597736550 0.95697618441954724 0.20167424467768666
0.37006209292808878 0.92470322933286930 0.19567101633439257
0.34779083176117015 0.93107842149962561 0.26012553633516095
0.34797361210634564 0.95090950684815101 0.25388539206675093
0.33635658233352295 0.93625680987758952 0.24497805180600368
0.34007854898018469 0.93453262076163535 0.25406642610289598
0.35406881272523749 0.96822125036890783 0.24435229107013237
0.36345173114524693 0.96130586660876682 0.25748802759633949
0.35704452331293451 0.96547081364612442 0.25233234123576975
0.34449787503296159 0.95278096802566392 0.23444315152898088
0.35366832585427987 0.96734402113266771 0.23453046698049781
0.33656613941716357 0.93639185777593581 0.23397397650282989
0.39191656833976657 0.93137121931371214 0.25282538248533537
0.37304013192782626 0.91939503198364991 0.25998524950972374
0.38594011673493767 0.91283356685365757 0.25413162164002862
0.38610135926873890 0.95410525237367072 0.25653279655674427
0.39628466932765360 0.94854558652408261 0.25073679688505035
0.36688555680190282 0.94250335727911083 0.26122105420019337
0.37414729185306095 0.95793781859225369 0.25883559606475082
0.35955105887448058 0.92575508947214324 0.26204065523843229
0.38138981750488532 0.16374266622970135 0.70043756683270197
0.39388698702899866 0.16004747632150482 0.66616508790628604
0.40742379252917360 0.16916088104783200 0.63442592127988151
0.39863112656141858 0.16676145244014670 0.66793293474799897
0.33443738870918083 0.15778542402420617 0.75783001311478093
0.35747586164342821 0.15723475457663941 0.72390272127336208
0.35819068413984684 0.15981114249939898 0.73160045147909469
0.35134864535898008 0.14879542513602292 0.71347783846525048
0.37394995893263266 0.15260005041012067 0.69310888993538067
0.33826238758863253 0.15409838355815123 0.73600755336865931
0.35648046549613516 0.15328285724098309 0.71728188163633821
0.39479099300370396 0.15383760140962066 0.63305739710310616
0.37745480115652230 0.14451522170266295 0.66295711821755410
0.38798737302150471 0.15260005041012067 0.66437570325319917
0.30010408001820821 0.16465074692547740 0.78640486777821184
0.31849253947677092 0.15798101063560410 0.76134824370790299
0.31553365166606612 0.16048638199112991 0.77553467616736393
0.27449183862474674 0.16774520652723748 0.79370851424609801
0.28836149062610422 0.16080828495572233 0.77598988072127217
0.28677328077331227 0.16701350304352561 0.79213159719170223
0.29364611280341391 0.14767371263553539 0.74152763621355966
0.30646972569559855 0.15466069506592028 0.75589044588508481
0.27449183862474674 0.15483066914487320 0.76106941636605896
0.29057674184138976 0.15478177249202374 0.75992034502409622
0.32791480806026402 0.15003705085659369 0.73369078338840998
0.32197869619403596 0.15449537781104822 0.74839819804192187
0.31275987261257732 0.17269424631921715 0.45906680738036765
0.29298210789977819 0.16964344444321555 0.46753640617751002
0.27449183862474674 0.17189094416526138 0.44419168884964222
0.29331070504898693 0.17240610532921127 0.44801674593939494
0.35483078556547526 0.17049156852895003 0.50130129127910739
0.33067630474023946 0.16994497380245402 0.49162732135404147
0.33346993350637316 0.17149744253042509 0.47691583197945875
0.33161232638050098 0.16270070184159929 0.52365171845540137
0.31152074993495005 0.16692153076792776 0.49541040881676507
0.34673198638577485 0.16651929758793976 0.52249158715624633
0.32933764244788288 0.16722829905425726 0.50644533557947480
0.27449183862474674 0.16592613462063477 0.48638257323292444
0.29449755487630608 0.16036239404997588 0.51233097911472614
0.29314579526622192 0.16630915840128901 0.48867489488674898
0.39420772578757091 0.17222157867500548 0.56593160638892981
0.36968663648656597 0.16828539812062224 0.53836844675707507
0.37623471324732571 0.17135366308692720 0.53196007471874240
0.39853507956474998 0.16436202383246143 0.60070644021307307
0.40527699662787725 0.17123607827888440 0.60025647458625575
0.37830641786031743 0.14882103766846788 0.60128970742920618
0.37900086675138212 0.16063598246472893 0.57079216652337239
0.39055677570814290 0.15686744757725818 0.60112671858637445
0.35504616367921704 0.15961322747596060 0.54739453603188537
0.36383941174998213 0.16408727121168817 0.54426049342543759
0.27449183862474674 0.13704451167087434 0.71899442869209029
0.30201855860816840 0.12892592098883002 0.69164490086494690
0.31955586704534411 0.14099931952158118 0.71679524351988388
0.29779668189642178 0.13822327026635287 0.71841814671207838
0.30663667283889895 0.12076483678704748 0.63132156592694966
0.33408405218204229 0.12803763179539776 0.66215032344553759
0.27449183862474674 0.11991554849529280 0.66238200044356255
0.30530185242640917 0.12227481199528034 0.66226150512046911
0.34961805310991445 0.13947712015013602 0.69033225857714242
0.36284110508763856 0.13558285101248088 0.63191589310027485
0.35881120594862714 0.13588961929881038 0.66229817761010623
0.33822338668695495 0.14461185080234168 0.71423224396635687
0.27449183862474674 0.12457761150328686 0.59961616127513162
0.30164170511942134 0.13758121064619838 0.56891255590371781
0.33370743153449922 0.13255533325688379 0.60041306029597619
0.30501312933339314 0.12689147096848552 0.59987868973269254
0.31983510185929526 0.15242541950708682 0.54181216816490285
0.27449183862474674 0.14858761436141263 0.53852561456980552
0.29773299982711543 0.14976229823582041 0.53940342590905577
0.34989746255476861 0.14775578915996132 0.57149185434152794
0.33965885270989327 0.15571779413228523 0.54552714957544313
0.35874717461751471 0.14029090015827381 0.60096780446461373
0.36918253527980827 0.41156877343328430 0.94097300846552412
0.35476209741028197 0.41152208877187330 0.94881044339368392
0.35542860535686122 0.40259449132637409 0.95032274701395714
0.37032403928263957 0.39951772765612148 0.94305635513871811
0.36181136486274884 0.40667055123408752 0.94646631457195929
0.33813374282339753 0.41116450289276091 0.95651283042349744
0.34577733744918970 0.40681433067758538 0.95399232438970871
0.35072870565320985 0.42099907503831696 0.94635978972110868
0.34677273359648275 0.41294067380751837 0.95183621484025061
0.35232716051897983 0.39148412401355370 0.95134550200272550
0.33843643638865623 0.39880144990217758 0.95767121541362210
0.34739733012633384 0.40049030536541808 0.95379208095422985
0.37506876091806957 0.38157836066986084 0.94100444202807021
0.39901415034207288 0.38346734314797815 0.92656246634716977
0.38435213972334975 0.40357737225894968 0.93408498354685843
0.38270653451376063 0.39119534271023670 0.93683367396061157
0.34420333090984451 0.37584825505891173 0.95288865708253467
0.36988804412806503 0.35845612311245822 0.94194744890445303
0.36126302382722253 0.37731131276452945 0.94676376921012695
0.39665605104810558 0.33483205455003734 0.92796125988047096
0.35191212107276931 0.33509341880157800 0.94642091053717059
0.37388825601356074 0.33540367970596813 0.93879827161974228
0.41852158641697557 0.35600837995493356 0.91253611221549003
0.41961011904588663 0.33166483207201314 0.91248139453253918
0.41857222937885535 0.39881437258900215 0.90850213835540772
0.41930276865654698 0.37809761751058990 0.91100692760792334
0.39477818673748150 0.41906847219497656 0.92094051547549949
0.37109357946200877 0.42671057081603275 0.93316235027582961
0.38018020744987074 0.41613956268929264 0.93259247142892909
0.40581253139718115 0.43849656762960088 0.90066644973627830
0.41294911430116504 0.41904122977410330 0.90563237051555134
0.38422291285510474 0.46123572319604822 0.90270788499274413
0.40054158864060901 0.45689888113980426 0.89187261956250308
0.34941606336540532 0.47409944298562967 0.91478011931947500
0.36473934300361666 0.44880136258672609 0.92395697327390447
0.36714342843538283 0.46754618550807986 0.90982875111545503
0.34242209569889914 0.43738457624938226 0.94126697048563113
0.35799276911640843 0.43311914659041895 0.93660025065355623
0.29035071124256295 0.42990075143677575 0.96295962126049750
0.30889721166837125 0.44483072153414416 0.94905434455492121
0.29277738227112149 0.46533431049025298 0.93919875849070011
0.27449183862474674 0.44707432116602219 0.95254870892462873
0.29172930580141326 0.44658483074481831 0.95155564118937608
0.32917709843769377 0.45986306608790106 0.93322696370995206
0.32123290581747926 0.42574303993983387 0.95690167523425285
0.32592593670561132 0.44152618095603435 0.94552156138654608
0.31248931113347683 0.48276008799069103 0.92254537347438081
0.33115345457762896 0.47916484516933083 0.91910863730267445
0.27449183862474674 0.48561140316512691 0.92567068453567691
0.29355745851497372 0.48490304201212059 0.92482256044994227
0.31180446694207908 0.33654401950277929 0.95636322994989853
0.29276509989760813 0.35793339460937690 0.96215864751858216
0.27449183862474674 0.33788809535312991 0.95957469225669112
0.29297343456492753 0.33744453285942388 0.95878477847196786
0.33017133037896651 0.35687396713097141 0.95522754697716827
0.33133425577257009 0.33561672940766946 0.95225882162559250
0.32164328843960888 0.38616963995182513 0.96149679639608387
0.30928413553919337 0.37403005630682418 0.96227390391458467
0.32680374804486156 0.37464318540737607 0.95815494301502591
0.27449183862474674 0.37473020980738797 0.96593416764217432
0.29042888767682112 0.38459673940819916 0.96782192770397046
0.29186324770404026 0.37434252920265276 0.96495332407013412
0.33014082818123663 0.40111944229874813 0.96330946516957539
0.32043542469362463 0.39230483104751185 0.96854257123049003
0.32481633194773418 0.39161992864581308 0.96320526873076517
0.32926487957161882 0.39597138148761085 0.96275704941297824
0.32461486609593410 0.41104662703321304 0.96516288115377469
0.32038629519957113 0.40046178231792257 0.97184949843094137
0.32913786469481215 0.40643177257933921 0.96380949165526231
0.30505277054838181 0.39034145580470214 0.98492353203807648
0.31328009807271517 0.39139215173795588 0.97650632251184433
0.30932552306321237 0.39767193722135458 0.98176853372326478
0.31248034674712105 0.39497383155918042 0.97875906116098121
0.30935916861719687 0.38502906731380998 0.97381118557502178
0.30506831269875179 0.38374943026667890 0.98010954014444307
0.31250002182886294 0.38810652950767477 0.97452135124735950
0.30221065260150570 0.41584676487520589 0.97182621431053684
0.30840504357332088 0.40536861964166904 0.97840397832481241
0.31493088399909430 0.41410226036419856 0.96827655015486858
0.27449183862474674 0.41660326594714858 0.97558077872576487
0.28666052742025339 0.40578808307075642 0.98496427924878438
0.28857908073128441 0.41652823286914503 0.97447478300655044
0.28336669753752963 0.38948739426826451 0.99826533302986364
0.29456542808728525 0.39778230395207198 0.99029052179131727
0.27449183862474674 0.39654597536889324 0.99444673728352329
0.28484098983124256 0.39700088887129648 0.99327671023319630
0.29932243209622866 0.39235209781193303 0.99040112136323877
0.30304044044242157 0.39830706981568875 0.98603534878739219
0.30230798022479660 0.38707446087074465 0.96889881827267921
0.28668549963938722 0.38349545872336660 0.97564481005687731
0.27449183862474674 0.38668724594841752 0.97250727483236898
0.28862279666734386 0.38662135188767272 0.97141583168840728
0.30847914528650822 0.38605537313094002 0.97044837648559978
0.31510161481196042 0.38869748048354136 0.96570714746823028
0.29934833568017871 0.37912846373119885 0.98023760280666794
0.29459482428929590 0.37968000633328075 0.97800232724783442
0.30307641440844657 0.38207186760183459 0.97538286370232652
0.27449183862474674 0.37785982843095878 0.98159390282023085
0.28337863064923702 0.37410864021318940 0.98566862389102106
0.28485728871552574 0.37829821020787485 0.98042969680000513
0.29029267557245469 0.38445173754838008 0.99557019609304109
0.29747961038681331 0.38253399918156322 0.98839286597834930
0.29773625960397210 0.38693848160758226 0.99073874110910420
0.27449183862474674 0.38177743989931950 1.00000000000000000
0.28219143156011178 0.37711683214885072 0.99605916262153582
0.28248358906088744 0.38256834325915984 0.99878922573896534
0.29030391016054985 0.37618855247862376 0.98843943421915825
0.27449183862474674 0.37322337795540972 0.99248505013944277
0.28248993398369765 0.37400589903190451 0.99128009690850916
0.29774982260410771 0.37960660314370553 0.98473143804473928
0.07582066337623239 0.21004605016913003 0.60255869199125212
0.08948902415669284 0.20045357466547994 0.56719768043592533
0.10589268698167367 0.18906705768466198 0.60070294759501230
0.09222316199519302 0.19331873807052646 0.63636199589151687
0.08979753875205265 0.19761756880021003 0.60152022022121088
0.09258755847952366 0.18289909418950595 0.51069294124426845
0.11450315470726334 0.18512622030619783 0.53644692472069244
0.07059046783036822 0.21673499585833708 0.53186286351605350
0.09019744352000020 0.19812923734609925 0.53501553341882491
0.16108827650358667 0.17427116337361293 0.52870495468619116
0.12806731904891355 0.18298349912597234 0.56536230964503942
0.15230841680205412 0.16250104050913058 0.50714385919161031
0.13990321955353865 0.17801757834669937 0.53227208193216291
0.12219506388289487 0.18019755411957211 0.63542946686931612
0.13516548315422997 0.17742150486434383 0.60000325977685665
0.12178759177581584 0.18285019753665649 0.60017498016483994
0.11439895826845312 0.18326640118888718 0.66998659416767714
0.10488914139223907 0.18825502398555455 0.70185556976533681
0.08346775062008524 0.20320517559428353 0.67057801082595181
0.09786665067823735 0.19125692920870666 0.67010185056367944
0.14328640224831471 0.17264651387238789 0.66929039896758213
0.14468927050268673 0.17309589739619502 0.70274909788586015
0.13042017941578979 0.17760544941553949 0.66984572523922981
0.17902054183312391 0.14770922091915231 0.75691727559492383
0.13678722214040442 0.17029772822658243 0.72959918133032664
0.18361449878893471 0.16197481938798855 0.73618451268373364
0.16322692296274136 0.16469032993016511 0.73346550952349632
0.09106477700506840 0.19739404124432669 0.73406391141789229
0.11744626752639405 0.16374033781766090 0.75260796701105814
0.11145118862524153 0.18113648627488418 0.73073952112713780
0.07685680673423331 0.27917776785615533 0.34264090822040055
0.10944526165239256 0.31357947365081623 0.32393392199470405
0.13742986386356904 0.27183628469261178 0.31764720948548497
0.09935275966305551 0.23340933658302040 0.32508066492462639
0.10398513541753379 0.27742389148668528 0.32516332355206246
0.11791777096458546 0.36840309934926707 0.32362831791439478
0.14407340551798731 0.33371325256460033 0.30670658341041346
0.08909377621282621 0.34735541870960568 0.34589195353188090
0.11450024419221276 0.34339886454986851 0.32291465962399635
0.20282739074072031 0.30874510815182876 0.29039023603694958
0.17372631495614727 0.29472224663820962 0.30634975426521427
0.17436197144319054 0.34648692101851730 0.29041526646638444
0.17459073792616495 0.32119570943513304 0.29621592296215926
0.17181876339200738 0.22564291822209442 0.32749057138649368
0.20494333518248056 0.25671208428385905 0.32308870842402015
0.17289623606372637 0.26422063101130505 0.31863038146956557
0.11541414591808997 0.45337517877838701 0.36384884181874588
0.13917500868788746 0.43242455799463186 0.32719311674832596
0.11739504246150409 0.41032202520622457 0.33530600282087120
0.09531587528792271 0.42702906847801603 0.37091574699241925
0.11596074064458599 0.43081273804374970 0.34722927698731426
0.18780796887378789 0.43225346045686941 0.29311622443330815
0.16803509382627374 0.40227672129315351 0.29771076349212910
0.15862307025575861 0.46518738769050050 0.32767742645273995
0.16350924292264610 0.43320478558526682 0.30948554318069238
0.14479812376557782 0.38298512901440068 0.30700229173955079
0.19767519699821121 0.36419158407110042 0.27958174734517366
0.17191481038867601 0.37344242331811522 0.29113358158086372
0.09505509313939217 0.39212711499852443 0.35333582861490331
0.11846494779409156 0.39011490131316617 0.32759884254637472
0.11798180229569788 0.19816649193874647 0.91894332004780233
0.14983971793616546 0.23406536667541761 0.92485224770345809
0.12133762614899861 0.26052718741213887 0.91360252493001670
0.09490723897482348 0.23091793569973731 0.89894982795945544
0.11907324543965953 0.23276029172674456 0.91576503761258610
0.21342690445186563 0.23767091272005680 0.92652754016656291
0.17856068045513471 0.26344643400785489 0.93088108857919716
0.18733180861151552 0.19988486002459965 0.92510604461586732
0.18325883384975575 0.23525402102206810 0.92731163292118490
0.17436837457630183 0.31092857654276213 0.93639942511506724
0.14921395720029410 0.28642669664109105 0.92526030191354725
0.20076499977589038 0.28893847112972804 0.93947525742050364
0.17556052154101295 0.28780686287806867 0.93383526135552009
0.10341292815859282 0.28182226183109815 0.89413816447786243
0.12706726607753965 0.30710008504524977 0.91203375731776237
0.12419575192865281 0.28434742468896784 0.91238301912383024
0.05562867416143696 0.23049532891439536 0.36974147059011858
0.05276821996974231 0.26750019937028097 0.40839182983499128
0.06583293992871567 0.31239838664329722 0.37382236195281593
0.06033905171927035 0.27529455867569236 0.37154162414889264
0.05585627643839112 0.24776574312143426 0.49178856388784276
0.05198121670006969 0.29061027097477221 0.45065600098724667
0.05377234766218700 0.21694862766304851 0.44894811075557550
0.05247833267070610 0.25751946115888558 0.44971765093494476
0.05386024521671406 0.34166419757973215 0.45501420622396183
0.05934481977799756 0.33208569254832476 0.41301064258933390
0.05027449067441875 0.30389968269564921 0.49300283076693818
0.05278044413295468 0.31825783554309334 0.45254841787312367
0.07504763057880250 0.36703166465744108 0.38025588084118545
0.07107943435886305 0.34268462415646000 0.37669119842785620
0.06993851245904180 0.22262704252669963 0.63840575956002321
0.06029830450856247 0.24979961103876866 0.60500294253071607
0.06276409285940059 0.23456830367615517 0.56788980091494956
0.06627941293747225 0.22789798528327168 0.60375083895596326
0.05551167145640427 0.30025106102826166 0.60731680199591487
0.05324670864405509 0.28182400814012848 0.56979851668510961
0.06112023395884184 0.26949739479797824 0.64138729117782145
0.05700127305928314 0.27437483591971407 0.60622303043991277
0.05356919371165762 0.26670504665846678 0.53122022179288897
0.04956839972315182 0.31573849371532492 0.53320228254232327
0.05071688896210452 0.29171044566388560 0.53207242059969417
0.05928719157999641 0.24065302644086506 0.53087387050187174
0.06543361726377826 0.40243482047070017 0.61320244553116610
0.05549246205707055 0.38032509288908783 0.57507935519285369
0.05598259279158559 0.35172119128545226 0.60921911463296374
0.06287934925540296 0.37514204768704279 0.64600395015102674
0.05925692222347051 0.37720152813682217 0.61076576233083357
0.05325020126211577 0.39153674612566791 0.50296610588803015
0.04980356933923743 0.36171124314500946 0.53616227634874725
0.05950489810577862 0.40923908076621057 0.54373543651031575
0.05301386744000993 0.38495583875513784 0.53909607551971617
0.05117791454611393 0.33134933224053192 0.57169675460108771
0.04955035452983832 0.34895445567838579 0.49634235573595575
0.04895951997457375 0.33885496845292740 0.53438162324081195
0.05902931994651639 0.32257995039318149 0.64377507772530451
0.05495285256669594 0.32605219484850478 0.60819286702613473
0.07745753704066982 0.40304893914636919 0.39074641322677744
0.06611991671270133 0.41040177331861000 0.43196380017800712
0.08180875704126357 0.43887737941881677 0.41205942806050844
0.07869217752511921 0.41973329204282650 0.39957454090990852
0.06317505758454030 0.37538530853496893 0.41991787690733329
0.07670837046665453 0.38631731948549081 0.38462388869259084
0.05505064587239490 0.38107437588370519 0.46134166594388881
0.05420601440472109 0.36203081769756146 0.45767267067114731
0.06317505758454030 0.42205675620769201 0.47499081732501547
0.05762878010418480 0.40051085360167510 0.46684195728644540
0.08546669235681285 0.25561540221280643 0.87116314077171730
0.07604651934415618 0.22480003306345098 0.84147006622585940
0.07841509649230551 0.19393576726124612 0.87575127669742703
0.08128952115624288 0.22811802022109440 0.87330469774592256
0.09303985251838139 0.30126217395682781 0.86832480649440691
0.08149791403386328 0.27631207473736968 0.84009339260694249
0.08977483673465825 0.27910442287688114 0.86945932526111691
0.07389390241275878 0.27097768275269529 0.77428722941669204
0.07618331355153274 0.24914183463734108 0.80700549330610649
0.07734228064466746 0.29686438571542501 0.80854166314979437
0.07679859643322204 0.27356396642662678 0.80778725764868808
0.07894422812849811 0.18742028826905269 0.80616784707455413
0.07965264749180545 0.21915363386535608 0.77017176113519392
0.07700582510482223 0.22140637251449291 0.80608518844711796
0.09736022105943913 0.39591142487756920 0.86608254569945209
0.08347473585620661 0.37167661383693784 0.84018536488254036
0.09418368493325317 0.34881184044090807 0.86765422382675683
0.10976716461698496 0.37462787609821013 0.89093135899515064
0.09458475390722094 0.37259994563157889 0.86710006176112953
0.07083786160966621 0.37179483895829174 0.77979101337730927
0.07526068028050382 0.34625815453554298 0.81018785046239361
0.07943086624495248 0.39660546629652677 0.81127929360635520
0.07577816985649416 0.37152061023022759 0.81085843313004358
0.08352537881808643 0.32266551953566808 0.83987044715406922
0.07140133732345545 0.32029927079955922 0.77743000356829162
0.07630613728666653 0.32123471033681067 0.80937872727833671
0.10902847589715174 0.32770711370625571 0.89243376686425180
0.09408938424561490 0.32476516509314524 0.86789288606090309
0.06249050444464756 0.34731758201394836 0.67946614168736530
0.06633180220838243 0.37275431934986081 0.71456578899115142
0.07023945971527015 0.39933902203201688 0.68211994931046982
0.06493242657207107 0.37370367114905390 0.68064315397381359
0.06315759449423690 0.29376119456851324 0.67705157840141716
0.06488352991922157 0.31967642057873846 0.71205576081154476
0.06215288469878207 0.32054782878487748 0.67834908601095867
0.06686209805059526 0.34594032629202132 0.74642603304365951
0.06955665288440777 0.29379903126417062 0.74337639537367817
0.06778007449754327 0.31968689843292053 0.74503597105550989
0.07236821042325295 0.39795722590661087 0.74882779006338518
0.06799428840526479 0.37216208774737197 0.74765368829198753
0.07727068197442358 0.22026952533574246 0.70442497245197500
0.06795470540057710 0.24254777173878247 0.67348619746447569
0.07384733417194975 0.22073811825888334 0.67180391976524945
0.07375885451441259 0.24394481896305334 0.73907989305603494
0.07947335976469071 0.21925783030416629 0.73674915260354312
0.06799312419924457 0.26725222348797290 0.70850318614082586
0.07100143255550791 0.26867197272963822 0.74134019904430326
0.06474149678475405 0.26732498636423702 0.67533262821255369
0.11731180173105794 0.53587238904971102 0.47750724863773347
0.12865466098611744 0.55690900973218027 0.50585973995130129
0.14067799865999889 0.57298087384139673 0.48124667837469853
0.12715923835313747 0.54730431006531788 0.45810750161970165
0.12832810119744414 0.55559229272330490 0.48189455902495421
0.13032122190407061 0.54601204138286719 0.55550264885974754
0.14390168513000398 0.57356937998462088 0.53432457714582093
0.11509049664446722 0.52956995975921894 0.52358186609418778
0.12935725931932368 0.55331568785075347 0.53038373976735675
0.17779172237877564 0.60141951640046121 0.53820720422327373
0.15747283470777557 0.59175253171151676 0.50847571087874854
0.16200043192043354 0.58309957046618888 0.56340760773708043
0.15971625970875059 0.58978618774335545 0.53655053905649253
0.15315537668176840 0.57732976542995007 0.44743790270613865
0.17324258735474349 0.60106734407934292 0.47773426881167746
0.15531090412821635 0.58844851502611606 0.47860218439975577
0.13540763800643690 0.50868934268346000 0.66468130733350839
0.15080659103596292 0.53305501048076476 0.63947100806852974
0.13266767913783561 0.52557556890382440 0.60787329247358268
0.11787877006290791 0.49622709933995346 0.63120689163395738
0.13400069503099410 0.51583931395667637 0.63560351566933992
0.18752972363495390 0.55848185206550527 0.64540787666867105
0.16649484926151503 0.55956514576732530 0.61586090997835163
0.17041240251957471 0.53815830757042427 0.67096627353369709
0.16856131494741575 0.54742014856433030 0.64275697956061706
0.14739488529369135 0.55606030354343572 0.58601124972277352
0.18280828611992836 0.58403908472451105 0.59235559042999364
0.16428402202910636 0.57224218512156355 0.58962785572460474
0.11568773433284302 0.51336479406068658 0.57509740038616719
0.13143303865338621 0.53619953094139450 0.58125255761510064
0.15107901524469575 0.47287958791763712 0.87903957660155463
0.16469207623919546 0.49425900906276177 0.86759950614380621
0.14776743122016361 0.49414957369686058 0.84081054351540163
0.13719935107156433 0.47346157450714799 0.85832835150173858
0.15031529609542765 0.48507022199662497 0.86195601746076189
0.19732244257408280 0.50930695397718972 0.87717160804210237
0.17904557226255874 0.51526827090375571 0.84906418209579204
0.18135593910969675 0.48639456455493280 0.89311017056200304
0.18036985661056554 0.50238749549597805 0.87269640010035465
0.17603609970027517 0.53066314921221092 0.79404788030099382
0.16097302010758430 0.51400277895977031 0.81908063814788790
0.19506853971892577 0.53344094477646953 0.82617647384116399
0.17754665701151809 0.52477925198598996 0.82268909470757756
0.12948532198154852 0.48484599591712951 0.81326542907686039
0.14246272648900499 0.50472929590566207 0.78782170650482664
0.14505133857497693 0.50079719007234957 0.81579233824376030
0.12058263854488219 0.48824006393819464 0.69229860254530362
0.13846251460350928 0.50542258059070655 0.72669506941287354
0.15397206720495674 0.52116730280823964 0.69834083179027528
0.13686347763472922 0.50582423166768442 0.69534707600926471
0.15714045388900111 0.52037098589040520 0.76070152726366769
0.12397455278480993 0.48844671050678473 0.75521811690840435
0.14029730329138507 0.50566473544291346 0.75782128156962913
0.19308007583638020 0.54263933654227314 0.76632580654737825
0.17336017216278629 0.53305966730484566 0.73233448337484697
0.17467688917166163 0.53266383725796884 0.76361669913831298
0.19093793675916479 0.54457948587497940 0.70359605776557443
0.17197476699871767 0.53413190104947350 0.70113783675386765
0.07783648610025327 0.42506991930305971 0.65047566547471380
0.08767810169223167 0.45157909994068374 0.62142057582793975
0.07225761085133149 0.43074292642974688 0.58356467077126906
0.07516870800490599 0.42736401637106508 0.61689879964538286
0.10059205697158582 0.48093507863338514 0.59628187523320497
0.10380060876332800 0.47027392021346887 0.65737707876261198
0.10217654136511307 0.47467002035614231 0.62633468943931248
0.09915659094864748 0.49584582186832948 0.53943020264752095
0.08389443212649797 0.46188145006516645 0.55880957606019876
0.09945171717477470 0.48826276595558904 0.56729023481453333
0.07004852992795313 0.44077119335191794 0.51826028037573590
0.07018881675339032 0.43521065434781475 0.55063219297413313
0.09463074004501987 0.41966576809365341 0.83915271414260006
0.09969212571795132 0.44437924243950061 0.81143005828597436
0.08349103474048976 0.42234443151528983 0.78148318682770745
0.08778928336716323 0.42109727581612300 0.81133925021639686
0.11819194148234863 0.41816010044769547 0.88676990457585358
0.11447870638083857 0.43954819492767083 0.86219118707684750
0.10457771628182867 0.41852752386767866 0.86445265727113596
0.11887183779816046 0.46227617411632399 0.83749372056377835
0.13468815868593742 0.45551749248650542 0.87737767250768239
0.12530349395689760 0.45807356501421209 0.85927834361424271
0.11042086629734171 0.46814901138535281 0.78352171156912276
0.11397809779214152 0.46583445339654200 0.81194172683186372
0.13512590014954229 0.48837220132149028 0.36893764454345374
0.15048352386535027 0.52785450218841634 0.38382531321507718
0.16869287022770127 0.50764446778030736 0.33998040641267963
0.15366471681561716 0.49718524089459920 0.35350580269385634
0.10085516753215684 0.47136728429736385 0.40519352305622708
0.12007271630802331 0.50652042686777932 0.40995471820684332
0.11700910816579928 0.47979753293102251 0.38564443751095079
0.13681108836381906 0.54284889362591382 0.42483210693930817
0.11348913126364669 0.51944427789830550 0.44647947009998784
0.12393205926507170 0.52998499920542941 0.43411822162873587
0.16372171052133730 0.56687461326531274 0.40444639384274722
0.15092999687410685 0.55585016435678491 0.41549080888452183
0.10633799578441003 0.46837882565374539 0.72149863584159579
0.09339202483949968 0.44663279603285155 0.75145132832996397
0.10799931777527215 0.46862057303384524 0.75313360602919011
0.09102170138232005 0.44701017341430777 0.68658060467696480
0.10506319019226282 0.46855339834647824 0.68933919084188988
0.08001180504904512 0.42328839304060928 0.71746757249656412
0.07917474092050281 0.42385660707290085 0.68413693624051108
0.08117426476024052 0.42292956146105531 0.75005486320870318
0.08564423377489729 0.47493330554761631 0.49982507804546111
0.07893433237732617 0.45492136079384882 0.45659810851447896
0.07292295459189051 0.44742858905797694 0.48660842920084824
0.10254093784944374 0.50889016822194888 0.48781280032877178
0.10010949357620226 0.50287820833350316 0.51277221319639166
0.09684098517441844 0.48889085510350083 0.44782406984304757
0.10667969025134628 0.51341252650751590 0.46504616950024713
0.08820432281337372 0.46298802788739102 0.42915218442886094
0.17127682548959230 0.54810935852830389 0.35967510502593558
0.17726084443355269 0.53496081573587428 0.31789285695575265
0.18773869861558443 0.49830287867401596 0.30044781184567987
0.17627650824345178 0.52115857126308784 0.32899297925559506
0.18155036151507445 0.59493896358887466 0.41573057711438732
0.17703266005358842 0.57965526695535097 0.37533879850446095
0.17261857292790247 0.57380746011575701 0.39005074774042164
0.17019062127272169 0.59798336233176497 0.35388061882206795
0.17136414094110924 0.56748989614700196 0.33501541699822285
0.18733879384763691 0.60398076964495795 0.38663788943419003
0.17637430154915076 0.58742576003734781 0.36334532271499831
0.18132159503210010 0.52681079149128385 0.27537605309710816
0.16102773779053492 0.55773676021256080 0.28866197219992445
0.17249109236868779 0.54628330138557979 0.30403007376991448
0.14748278284821842 0.59303432253978527 0.31163292118499875
0.12068858129272274 0.58855096515589600 0.25653396076276452
0.13880479117345565 0.55161478285520371 0.23377722568541173
0.14193243064679215 0.57193134211416319 0.27304822315966681
0.17363492478355957 0.62778470803750375 0.37549782904682383
0.14321538568108091 0.62956827166048968 0.34018606340615248
0.15802874308243336 0.61219307891163044 0.34675486303407227
0.11894110805636389 0.67186213006626083 0.32159153948200980
0.11370334517136822 0.62960145153206604 0.28646686174878883
0.14961327986523154 0.66625123915178286 0.37091609625422534
0.12907726777145939 0.64961997404984784 0.33239228620375122
0.09599693580975477 0.58526091894273802 0.19252649587376280
0.09133952962584167 0.62891748049518337 0.21909542356434480
0.10278018218660012 0.60728071160928787 0.23846431912284061
0.11162116270419448 0.54944761334855341 0.17575319763736030
0.13464100834211826 0.52150259414206457 0.16372229262434737
0.16234038007833945 0.52192112620633579 0.20973637136774997
0.13552871543254039 0.53481703629237642 0.19659597801746193
0.08194031232154905 0.58574348233812157 0.13005461872543886
0.09555395541905889 0.55008559824763714 0.11953427102366887
0.09304450934246229 0.56614640239966152 0.15279680122753883
0.12348733256534547 0.52772527532017122 0.07345383253711341
0.11981833729260401 0.52221974505052360 0.11624422481051090
0.09649230547136085 0.55611036440230532 0.07070688843239079
0.10515749087990110 0.53722868906327403 0.09300026951369367
0.16071922319517509 0.50368267469347916 0.15224147495589113
0.15023554798304220 0.50421995577181333 0.11863317556401413
0.13868080323230161 0.51163478391463113 0.13737223566556783
0.08266503056913961 0.62985874106253603 0.15015521776764659
0.08763211555443276 0.63416572123436110 0.09167656726869698
0.08428968007036464 0.59188874381588330 0.07740572987276974
0.08045071071867022 0.60906951415936472 0.10985448006850189
0.12548743850809330 0.67892595009398060 0.06128787962575435
0.10610224406531432 0.63773459478936312 0.04889141392239049
0.10262883540397079 0.68312465910592468 0.10752723223407061
0.10253919154041338 0.65907274483107081 0.07499931602896313
0.13091904169545654 0.61098172254758554 0.01663184720494504
0.10192390865872408 0.60106210515225200 0.03867434188888936
0.13446812374811473 0.63707914679997601 0.02383653616111215
0.11481807243573439 0.62157541522862969 0.02993057257398382
0.11585945472082634 0.56834558757186793 0.03456061991642164
0.09561449413211064 0.57831410162005092 0.05243234653290715
0.10631529376701562 0.04104117272800832 0.34094407794592152
0.13847357456070142 0.01071127748908702 0.36639938436785652
0.10666397347007324 0.01004360533648755 0.40637146670749152
0.07945997139545811 0.04034788804296385 0.37412633614469681
0.10654173183794954 0.01854405559316589 0.37017030587766869
0.19500450838781336 0.03590062104570149 0.37307261327579050
0.17390676688928228 0.00767793870338885 0.40376172428225249
0.16538070410015901 0.03905096253643237 0.34171024192783206
0.16992692860914058 0.01661962304173271 0.36898479488727287
0.16810319987845690 0.02879780011630416 0.46840432176558827
0.14209716579865408 0.00701026655078938 0.44373374841158642
0.19495852225001442 0.02949108480134863 0.43522235461831799
0.17193052716994908 0.01201053140765897 0.43931046405834073
0.08411854178539145 0.03650833658825930 0.44018134837177059
0.11374292817605591 0.03335857720053856 0.47154360329912698
0.11082717419840052 0.01518124650374379 0.44238943972003175
0.10671985535904407 0.03338302552696330 0.87739688190701604
0.12975658198426113 0.00713949341903440 0.84975630257481638
0.15871387832533623 0.00782870338300809 0.88528495979705568
0.13123628783596805 0.03409901222940217 0.90715922671107729
0.13081077053557555 0.01447806606752744 0.88150245443734210
0.13427486554875726 0.02800031899244953 0.79197268306994140
0.15899794459427133 0.00480351403945147 0.81698157469342092
0.10941499229586669 0.03042594223558990 0.81942291471783435
0.13220607145081609 0.01181727320830150 0.81801015071229033
